ply
format ascii 1.0
comment Created by Open3D
element vertex 1795
property double x
property double y
property double z
end_header
-228.938 -450.256 -314.516
-238.205 -450.896 -314.778
-247.092 -440.806 -315.348
-248.879 -445.958 -314.229
-253.463 -441.421 -303.714
-250.057 -431.76 -307.504
-248.387 -451.773 -314.237
-253.407 -452.027 -302.972
-245.569 -456.366 -316.953
-249.673 -461.22 -306.382
-235.426 -431.36 -302.905
-236.626 -434.958 -300.63
-244.747 -429.413 -298.584
-241.395 -423.44 -304.495
-236.78 -439.218 -299.513
-245.47 -437.567 -294.755
-235.08 -443.662 -299.465
-242.826 -445.713 -293.409
-295.334 -389.785 -362.842
-299.015 -392.398 -363.482
-298.381 -395.972 -354.349
-292.206 -390.075 -353.53
-301.94 -395.533 -366.204
-303.257 -401.068 -358.19
-303.04 -397.822 -370.337
-305.896 -405.38 -364.743
-297.763 -391.526 -339.349
-303.505 -389.274 -339.756
-303.539 -390.542 -327.893
-293.39 -388.967 -328.548
-307.775 -387.095 -342.659
-313.04 -389.309 -332.184
-310.514 -385.555 -346.526
-320.284 -385.946 -339.69
-299.838 -381.629 -358.641
-303.182 -385.515 -360.28
-301.785 -390.858 -350.788
-296.07 -383.904 -348.58
-304.972 -390.042 -363.551
-305.4 -397.409 -355.419
-305.086 -393.033 -369.095
-305.902 -401.785 -362.513
-283.741 -409.113 -376.737
-289.456 -412.637 -376.749
-283.015 -420.311 -369.759
-276.164 -413.583 -368.262
-293.331 -417.46 -379.752
-288.06 -426.942 -374.138
-295.897 -421.345 -386.272
-290.748 -430.996 -380.835
-279.204 -412.471 -380.485
-282.706 -414.842 -382.765
-285.875 -417.512 -373.354
-279.522 -412.041 -370.216
-285.517 -416.482 -386.363
-290.936 -421.698 -379.351
-286.519 -417.023 -391.276
-293.558 -423.473 -387.456
-287.065 -411.61 -359.736
-289.819 -414.721 -361.533
-290.323 -418.421 -352.796
-285.271 -412.458 -350.444
-291.997 -417.089 -364.894
-294.348 -423.113 -357.932
-291.849 -418.773 -369.159
-295.543 -426.578 -365.195
-286.108 -410.556 -363.312
-291.08 -410.952 -361.441
-286.857 -418.306 -357.523
-280.267 -414.289 -357.052
-295.322 -413.08 -363.007
-292.611 -421.758 -360.864
-298.317 -415.009 -367.981
-295.865 -423.781 -365.91
-289.853 -412.233 -357.607
-295.755 -413.043 -360.399
-301.981 -406.286 -352.556
-293.224 -404.003 -349.431
-300.93 -413.651 -365.319
-308.707 -407.62 -358.314
-302.878 -413.766 -371.673
-312.321 -407.796 -367.075
-281.281 -421.252 -376.448
-286.318 -425.977 -378.468
-280.876 -433.896 -370.881
-274.902 -427.56 -368.116
-290.071 -429.992 -382.842
-285.553 -439.525 -376.628
-290.683 -433.12 -389.125
-287.123 -443.947 -384.653
-279.818 -409.074 -376.488
-285.586 -409.699 -378.813
-284.476 -420.245 -374.605
-276.386 -418.532 -371.11
-289.53 -409.964 -383.124
-290.947 -421.14 -381.32
-292.003 -409.214 -389.201
-294.514 -420.343 -389.119
-309.025 -333.57 -372.669
-316.049 -331.415 -373.362
-314.16 -326.813 -362.851
-305.768 -326.083 -364.388
-321.137 -329.443 -375.769
-322.886 -324.022 -365.631
-325.138 -326.436 -379.41
-329.281 -319.716 -370.872
-308.592 -338.102 -373.96
-313.661 -338.654 -376.429
-316.118 -337.993 -364.924
-306.631 -334.799 -362.821
-317.13 -338.974 -379.745
-325.107 -339.101 -371.073
-319.501 -339.196 -385.138
-329.922 -339.376 -379.642
-308.412 -336.011 -352.169
-315.116 -335.939 -354.705
-317.367 -327.675 -347.345
-309.42 -326.172 -346.72
-319.747 -334.622 -359.045
-324.511 -327.026 -352.181
-321.95 -333.088 -365.116
-327.848 -325.137 -359.685
-307.087 -300.973 -374.514
-311.581 -300.175 -376.855
-314.007 -309.195 -373.5
-306.638 -309.885 -370.17
-314.572 -298.446 -380.555
-319.53 -306.92 -379.104
-316.068 -295.833 -384.523
-322.757 -303.073 -385.676
-309.066 -323.575 -360.152
-317.623 -324.875 -361.113
-318.947 -314.068 -359.017
-312.939 -313.258 -361.372
-324.762 -324.143 -364.153
-325.515 -313.442 -361.349
-330.469 -322.136 -369.368
-330.445 -311.679 -365.683
-312.562 -327.128 -342.398
-320.222 -328.306 -345.086
-322.999 -317.134 -342.304
-315.611 -315.779 -340.931
-325.62 -327.819 -350.918
-328.568 -316.78 -347.802
-327.858 -325.363 -358.184
-330.55 -314.298 -354.929
-317.385 -302.485 -361.995
-322.696 -303.315 -364.795
-323.001 -313.921 -360.125
-314.691 -312.104 -356.113
-326.369 -303.981 -369.778
-329.153 -314.877 -366.964
-327.203 -303.294 -376.347
-331.006 -314.217 -375.557
-315.655 -320.241 -355.593
-323.604 -320.985 -357.074
-325.879 -311.189 -350.446
-318.07 -308.877 -352.417
-330.239 -320.187 -360.388
-334.005 -311.13 -353.399
-334.199 -317.806 -366.49
-338.976 -308.969 -359.846
-315.514 -309.063 -345.457
-321.457 -306.724 -345.127
-323.819 -315.821 -349.807
-316.754 -318.65 -349.554
-325.755 -303.236 -347.465
-329.517 -311.271 -353.079
-327.896 -298.709 -352.06
-331.892 -306.47 -357.893
-310.859 -321.563 -348.871
-316.066 -320.449 -348.817
-317.669 -330.221 -341.923
-306.894 -330.899 -342.336
-320.54 -318.324 -352.133
-326.506 -326.288 -345.309
-322.878 -315.128 -355.315
-333.186 -320.324 -351.802
-316.504 -331.024 -336.696
-323.019 -329.702 -336.487
-321.485 -324.129 -327.152
-313.523 -324.192 -328.635
-328.988 -328.21 -338.041
-329.358 -322.166 -328.881
-333.364 -326.238 -341.897
-335.594 -319.165 -333.799
-313.736 -326.831 -354.367
-319.465 -325.215 -353.541
-317.702 -319.681 -346.053
-311.297 -320.301 -347.948
-324.898 -322.466 -354.438
-323.731 -317.306 -346.575
-328.981 -319.22 -356.705
-328.831 -313.403 -349.225
-309.862 -309.572 -371.92
-314.777 -308.828 -371.802
-315.389 -314.31 -361.995
-305.312 -313.232 -362.303
-319.253 -307.221 -374.57
-323.951 -312.028 -365.547
-321.285 -305.16 -378.121
-330.652 -308.184 -372.67
-312.642 -313.891 -374.748
-319.409 -310.937 -375.864
-317.779 -303.079 -367.645
-310.287 -305.506 -367.259
-324.171 -306.718 -379.745
-323.342 -298.915 -371.357
-325.987 -302.771 -385.179
-325.909 -294.075 -377.676
-264.038 -267.964 -297.722
-267.557 -263.131 -294.672
-274.163 -262.595 -301.803
-270.591 -266.781 -304.824
-269.525 -256.853 -292.608
-276.066 -257.166 -299.811
-269.248 -250.602 -292.73
-275.861 -250.447 -299.872
-272.838 -277.144 -299.588
-275.216 -273.036 -295.917
-285.482 -275.043 -298.791
-281.911 -279.723 -304.947
-276.1 -267.186 -293.521
-286.824 -268.059 -294.897
-275.912 -261.262 -292.929
-286.625 -259.66 -293.51
-269.534 -279.445 -293.157
-273.068 -273.831 -290.346
-279.83 -272.832 -298.149
-276.343 -277.804 -300.809
-273.988 -266.271 -289.477
-280.538 -266.74 -297.507
-272.387 -259.755 -290.88
-278.962 -260.088 -298.896
-271.893 -264.712 -310.5
-273.823 -260.008 -306.348
-284.563 -262.392 -310.09
-281.398 -267.995 -316.324
-273.334 -254.722 -303.126
-284.738 -254.398 -305.335
-271.154 -249.418 -301.705
-282.09 -245.587 -302.572
-265.008 -260.736 -303.817
-269.122 -255.764 -301.571
-277.329 -260.844 -307.428
-272.178 -266.582 -310.289
-271.212 -249.568 -301.674
-280.333 -252.874 -307.45
-271.831 -243.248 -304.146
-281.229 -245.125 -310.115
-274.007 -261.288 -312.559
-276.592 -257.868 -310.17
-275.501 -263.508 -302.613
-271.948 -268.768 -307.09
-278.126 -253.343 -309.393
-277.49 -256.254 -300.381
-277.819 -248.845 -310.741
-277.616 -248.297 -301.267
-268.16 -263.798 -303.846
-272.446 -258.796 -301.03
-280.028 -261.805 -308.528
-275.339 -266.898 -311.694
-274.754 -252.604 -299.089
-282.747 -254.694 -306.472
-275.505 -246.129 -299.624
-283.863 -246.545 -306.885
-280.92 -265.942 -306.572
-283.525 -259.572 -302.733
-293.469 -259.203 -309.902
-290.313 -265.634 -314.452
-284.798 -251.953 -301.493
-295.006 -250.981 -308.22
-284.458 -243.44 -301.417
-294.471 -243.166 -308.494
-289.702 -278.708 -303.285
-293.935 -276.237 -302.534
-293.467 -284.501 -296.826
-288.563 -288.697 -303.268
-295.633 -272.621 -301.936
-297.884 -276.976 -293.158
-296.061 -267.912 -301.915
-299.517 -268.457 -292.49
-214.274 -304.836 -247.299
-214.409 -301.227 -241.629
-226.032 -298.905 -243.211
-225.427 -303.28 -251.323
-213.588 -296.293 -236.998
-224.902 -292.423 -236.884
-210.745 -290.056 -234.285
-221.652 -285.2 -233.605
-229.42 -287.402 -256.367
-232.194 -285.449 -253.465
-235.763 -294.285 -251.856
-233.275 -295.331 -260.327
-232.716 -282.071 -250.202
-236.94 -289.338 -245.432
-231.996 -278.63 -248.206
-235.706 -282.362 -240.099
-234.316 -307.496 -249.757
-235.937 -303.559 -245.771
-245.047 -309.971 -247.121
-242.338 -312.109 -256.105
-235.134 -299.5 -243.362
-245.283 -302.687 -239.789
-232.994 -295.046 -242.744
-242.088 -293.783 -236.292
-232.812 -295.724 -254.732
-234.282 -291.982 -250.668
-243.907 -297.551 -252.031
-241.063 -300.537 -260.585
-234.588 -288.245 -247.638
-245.191 -290.522 -244.829
-232.017 -283.254 -245.67
-242.216 -282.891 -241.05
-200.675 -291.55 -248.413
-201.679 -288.235 -244.493
-202.857 -295.755 -237.206
-201.304 -301.115 -244.038
-200.837 -283.642 -240.963
-202.085 -289.325 -232.178
-198.21 -278.76 -239.574
-198.771 -282.11 -229.599
-198.938 -299.834 -243.86
-197.337 -297.602 -240.083
-203.18 -303.937 -235.383
-205.084 -307.422 -242.846
-194.614 -295.212 -237.35
-198.985 -299.254 -229.545
-190.345 -292.84 -236.195
-192.645 -294.974 -226.894
-204.712 -291.872 -247.087
-206.974 -288.767 -244.834
-210.658 -297.051 -241.78
-207.346 -300.939 -248.621
-206.465 -284.989 -243.416
-211.212 -289.859 -236.688
-205.287 -281.241 -243.04
-209.604 -281.426 -234.505
-211.368 -300.812 -246.309
-213.094 -297.712 -241.735
-224.101 -301.861 -242.319
-221.234 -304.336 -251.689
-213.017 -292.981 -237.803
-224.058 -295.811 -234.834
-210.884 -287.77 -236.873
-220.987 -287.04 -230.864
-232.619 -309.287 -242.2
-235.448 -306.202 -239.61
-236.9 -315.659 -234.645
-233.117 -320.052 -242.393
-236.696 -302.193 -237.65
-239.741 -308.082 -229.151
-237.235 -297.126 -236.656
-240.488 -299.279 -226.609
-233.2 -307.412 -241.094
-234.91 -306.229 -236.33
-232.375 -315.688 -233.221
-232.012 -317.603 -241.64
-232.841 -303.645 -231.295
-230.25 -312.412 -226.605
-228.768 -300.175 -227.754
-225.803 -308.441 -222.419
-208.691 -311.233 -241.322
-208.495 -309.055 -234.716
-217.449 -303.87 -237.445
-216.062 -304.306 -244.814
-206.067 -305.721 -230.453
-214.9 -299.685 -230.651
-202.033 -301.433 -228.435
-209.906 -294.259 -227.406
-191.138 -395.904 -257.819
-190.077 -398.842 -253.6
-201.576 -397.784 -251.584
-201.692 -391.146 -259.662
-186.568 -401.594 -250.698
-196.612 -404.528 -245.413
-181.898 -402.808 -249.352
-187.778 -409.011 -241.329
-205.579 -382.974 -253.87
-204.917 -387.187 -248.112
-208.18 -377.511 -242.329
-206.865 -372.341 -249.075
-202.506 -391.347 -244.153
-205.084 -383.546 -235.773
-197.95 -395.424 -241.938
-198.922 -389.195 -232.04
-212.417 -390.044 -258.613
-212.03 -391.206 -253.773
-220.536 -397.94 -254.167
-221.128 -394.728 -263.09
-208.656 -392.453 -249.449
-215.987 -400.025 -246.844
-203.649 -392.453 -248.033
-207.823 -400.665 -242.289
-214.003 -380.941 -254.458
-212.584 -384.962 -249.126
-212.949 -376.487 -242.183
-214.143 -371.85 -248.333
-207.732 -388.309 -245.389
-207.866 -380.282 -237.924
-201.341 -389.833 -243.494
-200.626 -382.111 -235.746
-209.228 -378.252 -251.402
-207.779 -380.099 -246.473
-215.664 -387.425 -248.318
-217.403 -383.513 -256.376
-204.002 -381.031 -242.821
-209.971 -390.08 -241.509
-199.294 -380.726 -240.669
-201.908 -390.545 -236.67
-211.557 -386.691 -256.464
-210.032 -388.77 -251.405
-215.978 -381.795 -246.696
-217.101 -378.379 -253.946
-206.07 -389.958 -247.417
-211.084 -383.941 -240.723
-200.652 -390.083 -245.692
-203.646 -384.391 -237.641
-203.267 -380.301 -252.582
-201.584 -383.232 -247.307
-201.677 -375.085 -242.547
-202.856 -372.071 -247.984
-197.387 -385.467 -243.282
-197.565 -377.445 -238.318
-191.807 -386.184 -240.613
-191.812 -378.125 -235.705
-208.886 -383.254 -254.173
-207.969 -386.585 -247.962
-212.048 -376.885 -242.539
-211.944 -372.564 -250.109
-203.843 -388.586 -242.847
-207.259 -379.858 -235.616
-197.638 -390.746 -239.611
-200.142 -382.273 -231.732
-191.549 -379.169 -249.231
-194.228 -381.939 -244.165
-196.264 -390.827 -249.436
-195.088 -386.533 -255.878
-192.215 -386.345 -239.046
-194.308 -395.204 -244.343
-187.552 -389.668 -234.501
-190.016 -398.224 -240.126
-175.558 -371.186 -244.38
-173.197 -372.871 -238.982
-173.848 -382.382 -241.593
-176.679 -380.413 -247.743
-168.086 -373.733 -235.502
-168.288 -383.397 -237.57
-162.039 -373.233 -234.078
-161.611 -382.976 -235.684
-186.464 -369.82 -241.589
-185.792 -370.51 -236.11
-189.087 -379.741 -238.426
-190.327 -378.001 -246.017
-182.729 -369.955 -231.937
-184.358 -379.891 -231.669
-177.791 -368.747 -230.457
-177.238 -378.461 -227.855
-233.933 -449.667 -321.987
-235.517 -455.145 -321.195
-244.926 -451.865 -323.186
-242.231 -444.817 -325.287
-235.143 -460.495 -321.707
-245.069 -460.012 -323.831
-233.735 -465.201 -323.784
-243.203 -467.499 -326.672
-242.864 -446.835 -322.151
-241.379 -450.909 -321.099
-250.256 -450.599 -317.939
-251.423 -443.073 -320.94
-239.607 -454.273 -321.313
-246.816 -458.657 -317.108
-236.184 -457.176 -323.388
-241.835 -463.805 -319.781
-246.739 -448.493 -328.227
-248.052 -454.096 -324.107
-242.965 -449.266 -315.821
-241.666 -443.377 -320.106
-246.999 -460.484 -321.127
-241.871 -455.852 -312.754
-243.605 -466.451 -319.1
-238.417 -461.963 -310.685
-260.647 -448.993 -335.574
-258.685 -453.611 -334.168
-267.977 -452.78 -328.035
-270.075 -444.148 -332.066
-255.812 -457.293 -334.342
-262.66 -461.462 -326.571
-251.717 -459.924 -336.611
-255.646 -467.391 -329.299
-246.045 -447.529 -319.058
-246.341 -451.779 -317.007
-256.408 -449.919 -316.833
-254.618 -442.687 -321.866
-244.606 -455.853 -315.442
-254.334 -457.726 -312.856
-241.4 -459.171 -315.075
-249.053 -464.963 -311.51
-267.445 -433.714 -378.856
-269.188 -437.397 -381.259
-269.957 -442.004 -373.182
-266.647 -435.891 -369.818
-269.593 -440.113 -385.315
-271.252 -446.731 -378.95
-268.979 -441.345 -389.47
-271.152 -449.889 -386.414
-266.853 -432.039 -385.736
-270.36 -435.032 -387.554
-276.376 -429.903 -382.544
-270.791 -425.118 -380.815
-273.316 -437.391 -390.405
-281.298 -433.828 -387.056
-275.362 -439.98 -394.762
-284.005 -437.069 -392.658
-269.067 -441.843 -361.513
-271.661 -445.274 -364.195
-276.114 -446.744 -354.45
-270.943 -439.633 -351.094
-272.309 -447.564 -368.437
-278.835 -452.727 -361.529
-271.656 -448.705 -372.852
-279.092 -456.269 -370.746
-263.6 -453.543 -352.584
-267.406 -455.117 -355.894
-274.747 -451.559 -349.994
-268.668 -448.53 -345.475
-269.639 -455.306 -361.102
-278.313 -452.483 -356.84
-269.339 -455.686 -366.334
-278.751 -452.359 -365.029
-276.131 -442.549 -351.622
-281.512 -443.881 -354.479
-287.781 -439.295 -344.978
-278.778 -435.709 -341.783
-285.817 -444.35 -359.198
-294.966 -441.137 -351.677
-288.26 -443.295 -365.067
-299.271 -440.249 -360.587
-270.622 -439.765 -359.71
-274.036 -443.08 -363.596
-275.616 -451.434 -355.408
-269.963 -446.099 -349.771
-275.949 -445.33 -369.34
-278.873 -455.054 -363.321
-275.095 -445.437 -375.286
-279.255 -456.255 -373.052
-280.913 -434.011 -356.833
-285.068 -435.057 -358.084
-288.569 -433.294 -349.533
-281.15 -430.246 -348.216
-289.133 -435.519 -360.648
-295.101 -434.629 -353.432
-291.321 -434.623 -365.103
-299.083 -434.152 -359.809
-281.751 -440.6 -345.15
-285.119 -442.791 -346.698
-287.325 -443.044 -337.341
-280.807 -437.57 -336.072
-287.746 -444.778 -349.23
-293.348 -447.373 -341.857
-289.642 -445.913 -353.436
-296.894 -450.011 -348.632
-281.874 -437.44 -344.21
-287.241 -440.562 -346.324
-292.174 -432.565 -347.977
-286.899 -429.679 -346.562
-291.233 -443.789 -350.851
-295.74 -435.421 -351.679
-292.251 -445.318 -356.599
-297.094 -437.215 -357.978
-282.878 -436.68 -343.961
-285.904 -439.77 -346.065
-292.976 -436.126 -341.159
-287.911 -431.051 -338.451
-287.92 -442.757 -349.423
-296.407 -440.643 -346.128
-288.238 -444.407 -354.037
-297.495 -443.66 -352.983
-269.61 -443.644 -362.572
-272.907 -447.887 -363.649
-268.889 -453.073 -355.793
-264.35 -446.453 -354.253
-275.345 -451.934 -367.144
-272.295 -458.632 -360.031
-275.568 -453.92 -372.291
-273.375 -462.493 -367.147
-266.969 -448.306 -353.79
-269.826 -452.777 -356.437
-269.807 -459.858 -347.561
-265.114 -452.986 -343.612
-270.415 -457.491 -361.183
-271.133 -465.763 -353.436
-268.741 -460.676 -366.408
-269.207 -470.443 -360.636
-185.58 -302.907 -236.311
-187.505 -300.563 -230.123
-182.743 -310.496 -225.035
-181.519 -314.013 -233.594
-186.182 -295.169 -225.473
-181.071 -304.091 -219.031
-182.128 -289.888 -224.463
-176.11 -296.484 -216.247
-199.212 -290.345 -242.229
-200.712 -288.198 -237.755
-199.134 -296.654 -233.315
-197.843 -299.734 -240.308
-200.427 -285.103 -233.378
-198.436 -292.289 -227.205
-198.232 -281.156 -229.689
-195.933 -287.442 -222.695
-173.366 -304.623 -234.016
-172.447 -301.2 -229.97
-182.358 -305.845 -227.495
-182.892 -310.144 -236.183
-170.168 -298.253 -227.255
-178.717 -299.495 -220.092
-166.887 -294.076 -225.843
-173.246 -292.515 -216.73
-166.105 -319.772 -228.502
-165.624 -315.268 -223.255
-177.498 -312.26 -224.08
-177.696 -317.585 -231.905
-163.401 -309.231 -220.039
-174.861 -304.9 -219.24
-160.068 -302.917 -219.813
-170.616 -296.722 -218.772
-193.126 -328.02 -222.727
-192.92 -322.796 -218.661
-204.835 -321.393 -218.745
-204.804 -327.971 -225.477
-190.167 -316.915 -216.111
-201.704 -313.908 -214.768
-186.624 -312.089 -215.631
-196.402 -305.554 -213.261
-206.487 -317.221 -225.853
-208.516 -314.093 -222.47
-214.833 -322.562 -219.321
-211.768 -326.731 -227.637
-208.521 -309.311 -220.239
-215.033 -315.073 -213.463
-206.145 -305.24 -220.206
-211.925 -305.77 -210.834
-220.44 -310.657 -233.574
-221.904 -306.223 -230.829
-220.978 -312.763 -222.847
-218.802 -319.152 -227.875
-222.122 -301.189 -230.138
-221.386 -304.38 -220.309
-221.591 -296.24 -230.794
-220.763 -295.588 -220.488
-209.06 -314.141 -227.783
-211.908 -308.479 -223.333
-221.112 -306.46 -230.281
-217.765 -311.637 -235.2
-212.161 -301.256 -219.903
-221.582 -299.759 -226.691
-210.985 -294.517 -219.159
-220.321 -291.213 -225.403
-218.419 -320.071 -224.683
-219.231 -318.366 -220.327
-226.997 -325.67 -218.776
-225.623 -327.254 -228.231
-217.988 -315.909 -215.849
-225.733 -321.433 -210.793
-215.074 -312.286 -213.759
-221.247 -315.247 -205.441
-182.399 -335.639 -221.624
-180.901 -332.709 -214.35
-186.927 -323.279 -216.844
-187.78 -325.726 -223.686
-177.367 -329.15 -208.351
-183.649 -319.938 -211.025
-172.298 -324.99 -204.943
-178.284 -315.499 -207.298
-176.806 -327.291 -221.361
-178.048 -323.462 -217.157
-187.649 -323.373 -220.287
-185.679 -327.896 -226.144
-177.891 -319.137 -213.357
-187.648 -317.457 -215.346
-175.978 -314.428 -210.81
-185.385 -310.898 -211.819
-178.394 -364.793 -237.993
-175.264 -367.092 -235.076
-182.627 -364.847 -228.985
-186.552 -360.384 -234.773
-171.144 -368.75 -234.785
-175.39 -368.771 -225.934
-167.005 -368.515 -235.857
-166.624 -370.664 -226.286
-169.208 -337.769 -227.322
-165.084 -340.086 -223.38
-170.014 -333.427 -216.304
-174.841 -329.954 -222.231
-160.36 -342.016 -220.969
-162.895 -336.479 -211.932
-154.421 -343.454 -220.112
-154.932 -338.527 -210.407
-312.384 -296.376 -370.931
-317.829 -293.931 -372.672
-321.941 -292.48 -361.173
-312.462 -295.351 -358.676
-321.816 -290.087 -376.648
-328.423 -287.823 -366.525
-322.64 -286.744 -381.694
-331.372 -281.93 -374.494
-304.898 -249.335 -367.125
-309.95 -247.408 -368.684
-312.644 -254.157 -358.831
-302.104 -255.744 -357.074
-313.682 -245.924 -371.837
-321.94 -250.956 -364.328
-316.921 -244.425 -376.756
-327.764 -247.757 -372.148
-318.675 -294.518 -358.681
-323.51 -294.308 -360.795
-325.056 -297.235 -349.863
-315.375 -295.16 -347.765
-326.204 -293.114 -364.528
-333.493 -296.132 -356.268
-326.514 -292.056 -369.399
-337.166 -293.939 -365.732
-320.627 -271.171 -335.575
-325.849 -271.353 -338.849
-329.168 -281.773 -335.306
-321.367 -281.465 -330.512
-330.181 -270.379 -344.043
-334.711 -280.67 -341.649
-331.062 -269.137 -350.007
-337.319 -278.777 -350.276
-322.897 -286.871 -336.946
-326.585 -284.262 -339.138
-329.701 -282.462 -330.367
-323.6 -286.069 -327.525
-328.887 -281.418 -342.409
-333.917 -278.032 -335.121
-329.454 -278.009 -345.963
-335.465 -272.933 -340.673
-305.847 -258.094 -363.269
-310.255 -257.308 -366.323
-313.37 -266.332 -362.95
-306.647 -266.992 -358.502
-313.39 -256.458 -370.492
-318.511 -265.104 -369.244
-314.638 -255.562 -376.124
-320.547 -263.775 -376.517
-305.473 -258.12 -363.476
-309.637 -257.127 -366.647
-312.864 -266.28 -365.103
-306.358 -267.596 -361.027
-311.74 -255.844 -371.575
-316.657 -264.351 -371.426
-312.785 -254.961 -376.847
-318.209 -262.922 -378.787
-306.724 -262.581 -366.144
-311.063 -260.258 -367.038
-312.543 -258.367 -357.936
-305.808 -261.604 -356.826
-314.721 -256.757 -368.692
-317.648 -253.805 -360.246
-317.296 -252.875 -371.839
-320.886 -248.999 -364.048
-309.005 -261.16 -356.609
-313.122 -261.087 -359.703
-317.371 -269.264 -356.722
-311.04 -269.559 -352.234
-315.705 -260.794 -365.015
-320.733 -268.785 -362.849
-316.981 -259.758 -369.988
-322.672 -267.594 -370.184
-254.118 -313.144 -263.271
-259.02 -309.779 -260.742
-266.403 -319.287 -263.158
-258.684 -323.697 -267.576
-262.414 -304.579 -258.762
-272.225 -311.681 -260.773
-264.843 -298.94 -259.094
-276.458 -302.382 -261.09
-265.049 -329.304 -285.426
-271.467 -326.522 -285.74
-268.558 -321.44 -275.883
-260.744 -324.24 -276.083
-276.749 -323.51 -287.903
-275.714 -316.98 -278.535
-279.615 -319.567 -292.376
-279.877 -311.709 -284.031
-253.591 -318.234 -253.435
-257.651 -316.523 -250.062
-254.177 -323.574 -241.865
-249.275 -327.822 -249.143
-259.816 -311.749 -246.511
-257.625 -317.227 -236.807
-259.286 -305.833 -244.441
-257.707 -308.946 -233.634
-263.507 -339.759 -274.851
-267.983 -338.047 -273.868
-268.33 -347.123 -268.825
-259.13 -347.219 -269.096
-271.66 -335.319 -275.301
-276.387 -343.78 -271.56
-273.262 -332.361 -278.508
-281.533 -338.518 -277.228
-260.623 -342.398 -268.911
-266.532 -339.041 -269.415
-264.81 -338.68 -258.61
-256.326 -337.552 -260.085
-269.832 -336.036 -271.96
-273.3 -335.109 -261.618
-271.973 -332.975 -275.08
-278.927 -329.548 -267.351
-254.273 -341.042 -249.93
-258.203 -337.106 -248.194
-264.29 -346.249 -249.674
-257.705 -350.79 -253.936
-260.364 -332.751 -247.835
-269.995 -338.22 -248.257
-260.69 -327.169 -249.544
-271.5 -329.562 -250.056
-231.245 -318.417 -235.323
-235.067 -313.167 -232.412
-243.597 -316.091 -239.164
-238.978 -321.273 -243
-236.7 -306.513 -232.301
-245.962 -308.291 -238.462
-236.404 -299.487 -233.449
-245.672 -300.511 -239.77
-242.836 -319.327 -243.626
-244.777 -316.352 -239.356
-241.503 -324.828 -233.535
-239.801 -329.344 -240.998
-244.297 -312.226 -235.445
-241.106 -318.683 -227.408
-242.089 -306.612 -232.778
-238.624 -312.061 -224.131
-240.828 -326.109 -239.191
-243.549 -322.981 -236.776
-249.944 -330.153 -236.853
-245.984 -332.861 -243.682
-244.747 -319.201 -234.903
-252.608 -323.82 -231.871
-245.089 -314.777 -234.261
-253.395 -315.832 -229.545
-234.567 -318.742 -235.024
-238.852 -318.264 -231.7
-236.138 -327.757 -227.472
-234.36 -329.304 -236.962
-239.378 -314.068 -226.965
-237.114 -322.868 -221.24
-238.859 -309.542 -224.607
-235.922 -315.341 -216.057
-222.622 -330.318 -220.578
-227.917 -329.237 -218.427
-224.945 -338.086 -214.563
-223.124 -339.99 -223.452
-229.712 -326.208 -214.508
-226.432 -333.251 -208.052
-229.353 -321.209 -211.782
-226.071 -326.667 -203.941
-223.245 -324.356 -225.375
-225.593 -320.325 -221.477
-234.202 -325.836 -223.589
-231.235 -325.65 -231.966
-225.851 -317.687 -217.721
-235.085 -321.832 -215.168
-223.795 -313.593 -215.285
-232.693 -315.119 -210.044
-239.279 -338.555 -233.136
-242.909 -334.792 -229.722
-236.967 -337.275 -221.022
-232.774 -342.688 -225.537
-244.073 -328.549 -228.132
-238.656 -329.879 -218.856
-242.496 -322.086 -228.549
-237.176 -322.254 -219.125
-242.178 -369.108 -252.863
-247.079 -374.219 -252.84
-253.553 -368.996 -257.511
-248.706 -366.101 -259.137
-250.66 -379.817 -255.194
-256.864 -373.481 -258.712
-252.162 -384.446 -258.69
-258.68 -378.672 -262.589
-246.659 -380.909 -277.807
-247.836 -386.905 -274.244
-241.985 -383.557 -264.82
-240.963 -376.276 -268.844
-246.3 -394.127 -271.839
-240.73 -390.701 -262.274
-241.931 -400.563 -271.766
-236.393 -397.027 -262.222
-246.525 -369.967 -263.522
-258.236 -368.486 -267.705
-253.113 -371.481 -259.541
-253.43 -370.283 -270.876
-263.055 -366.273 -267.001
-259.687 -367.071 -257.52
-265.789 -362.231 -267.833
-264.877 -360.311 -257.967
-257.075 -376.999 -289.451
-261.587 -378.598 -287.97
-257.653 -377.155 -278.985
-255.008 -369.373 -283.463
-262.723 -384.209 -288.132
-259.695 -384.376 -278.693
-261.905 -388.482 -291.086
-259.155 -391.615 -282.091
-226.869 -378.972 -247.413
-226.555 -383.041 -242.212
-228.67 -374.264 -236.963
-226.99 -369.703 -242.603
-224.651 -386.717 -238.485
-226.177 -379.583 -231.012
-219.753 -390.012 -236.687
-220.359 -383.91 -228.234
-232.317 -367.823 -240.571
-234.305 -373.349 -239.221
-245.486 -370.639 -240.57
-241.998 -362.62 -244.229
-233.695 -379.752 -238.905
-245.271 -379.573 -239.269
-230.899 -384.134 -240.829
-241.583 -388.534 -241.638
-222.826 -366.419 -234.394
-225.377 -372.129 -231.412
-233.848 -372.902 -238.26
-230.312 -367.393 -242.284
-226.077 -379.089 -230.196
-234.988 -380.061 -236.432
-224.359 -385.815 -231.055
-233.302 -387.407 -237.117
-226.022 -358.353 -228.979
-229.431 -361.709 -227.422
-229.464 -355.649 -218.857
-226.157 -348.946 -224.332
-230.075 -366.821 -226.791
-230.67 -364.114 -216.672
-228.302 -371.521 -227.069
-228.613 -372.867 -216.668
-202.959 -361.659 -224.832
-202.068 -362.968 -219.452
-213.065 -368.541 -219.52
-213.988 -364.473 -229.568
-197.769 -363.354 -215.249
-206.894 -370.642 -211.297
-192.57 -362.933 -214.93
-196.513 -370.892 -206.379
-220.007 -349.58 -221.936
-222.641 -353.701 -219.304
-218.746 -350.572 -210.009
-216.269 -343.485 -214.176
-223.515 -359.769 -218.016
-220.109 -358.04 -208.179
-221.665 -365.452 -218.504
-217.946 -365.811 -208.635
-300.329 -350.474 -329.14
-305.547 -355.209 -331.768
-312.726 -346.034 -327.82
-306.132 -339.718 -327.736
-308.724 -358.851 -335.331
-319.023 -352.547 -332.983
-310.154 -362.234 -341.398
-321.347 -357.176 -340.727
-298.223 -350.222 -324.1
-305.617 -353.659 -325.957
-310.469 -343.883 -321.265
-304.016 -339.907 -325.175
-311.257 -356.513 -328.537
-318.099 -348.185 -323.54
-314.392 -358.735 -334.167
-323.087 -351.641 -330.267
-310.709 -328.624 -314.676
-320.363 -330.929 -319.138
-320.91 -324.227 -311.223
-317.792 -322.643 -319.357
-325.631 -332.096 -320.533
-328.58 -327.659 -311.618
-329.856 -333.315 -322.999
-336.171 -329.454 -315.714
-302.272 -339.549 -315.684
-305.027 -343.071 -316.405
-305.412 -343.25 -306.195
-300.461 -335.544 -306.458
-305.45 -347.304 -318.709
-308.291 -350.945 -309.592
-305.217 -350.07 -322.687
-308.587 -357.013 -315.988
-288.968 -344.985 -305.668
-293.567 -352.037 -306.395
-301.503 -345.618 -309.891
-296.657 -342.008 -312.627
-296.053 -358.083 -308.004
-304.875 -352.486 -310.695
-297.084 -363.138 -311.191
-306.527 -359.475 -314.905
-284.801 -352.972 -311.323
-289.953 -348.644 -309.328
-288.281 -354.071 -299.985
-279.473 -350.32 -302.151
-294.662 -346.14 -308.973
-297.589 -352.583 -300.638
-298.101 -343.157 -311.676
-304.802 -348.28 -304.718
-285.55 -353.792 -310.206
-286.905 -357.786 -308.3
-289.4 -351.016 -301.921
-286.8 -344.865 -306.819
-286.315 -362.03 -308.349
-288.982 -359.349 -299.493
-283.806 -365.32 -309.01
-285.111 -367.172 -299.65
-307.611 -326.774 -303.913
-310.977 -329.21 -302.651
-308.395 -327.122 -293.882
-305.651 -319.953 -297.786
-311.925 -334.251 -302.392
-310.497 -334.163 -293.126
-311.479 -339.052 -303.502
-310.236 -341.581 -294.56
-301.649 -316.107 -299.883
-308.763 -315.234 -301.202
-308.88 -312.363 -290.347
-302.189 -306.353 -294.347
-313.732 -316.918 -302.451
-317.243 -316.939 -291.785
-317.558 -319.079 -305.699
-324.526 -320.224 -296.969
-302.835 -325.227 -299.103
-301.311 -322.576 -288.532
-308.432 -317.785 -293.072
-301.586 -316.962 -294.162
-301.245 -318.667 -283.753
-309.184 -314.301 -287.244
-299.257 -313.434 -281.275
-307.257 -308.625 -283.952
-287.933 -329.156 -292.842
-291.282 -334.483 -293.468
-298.666 -327.951 -293.435
-294.607 -322.576 -295.9
-292.528 -339.115 -294.675
-301.683 -335.465 -294.895
-292.176 -343.079 -298.124
-301.86 -341.871 -299.52
-292.287 -305.933 -291.526
-296.429 -303.556 -289.669
-295.797 -312.883 -286.183
-294.847 -314.503 -295.947
-296.765 -299.587 -286.811
-297.397 -307.068 -280.239
-296.148 -295.52 -285.403
-296.3 -299.159 -276.114
-283.139 -302.404 -287.025
-286.139 -300.78 -284.116
-284.627 -309.351 -280.527
-283.277 -311.664 -288.713
-286.043 -297.625 -280.465
-284.893 -304.694 -274.356
-284.5 -293.774 -277.512
-282.978 -299.048 -269.865
-278.813 -323.08 -289.091
-278.576 -320.844 -284.699
-288.148 -323.964 -284.995
-287.632 -324.554 -293.729
-276.739 -318.245 -281.782
-285.339 -320.32 -276.966
-273.719 -314.969 -280.61
-280.008 -314.562 -272.753
-286.056 -320.449 -291.4
-287.892 -320.383 -286.904
-286.707 -329.608 -285.312
-286.186 -329.716 -293.173
-285.71 -319.008 -281.647
-284.647 -328.031 -279.097
-282.168 -316.825 -277.852
-280.527 -325.358 -274.174
-265.788 -319.79 -281.433
-270.656 -313.554 -276.927
-275.924 -323.844 -279.374
-274.473 -318.203 -289.287
-271.082 -310.383 -272.644
-275.534 -320.77 -269.193
-268.08 -307.524 -269.511
-271.066 -315.363 -261.189
-288.726 -324.061 -294.032
-287.787 -323.982 -289.138
-296.47 -320.419 -288.246
-295.942 -318.239 -295.739
-284.961 -323.578 -285.48
-292.96 -321.267 -281.057
-281.595 -322.782 -282.894
-286.905 -320.291 -275.512
-300.579 -325.964 -302.148
-304.442 -323.189 -295.933
-304.594 -334.514 -298.568
-293.145 -330.646 -294.53
-311.281 -321.292 -297.346
-312.459 -332.514 -300.156
-315.754 -317.634 -300.324
-318.779 -327.972 -304.705
-267.872 -336.081 -287.16
-268.182 -337.949 -282.069
-279.624 -335.988 -284.306
-276.453 -329.771 -292.291
-265.596 -340.315 -278.127
-277.043 -342.786 -276.508
-261.968 -342.669 -276.102
-270.198 -348.973 -270.419
-277.153 -322.971 -287.677
-276.858 -320.986 -282.16
-288.03 -324.118 -283.723
-287.105 -322.269 -293.803
-274.61 -320.277 -278.14
-284.814 -323.214 -273.209
-270.337 -319.643 -274.712
-277.95 -321.364 -265.985
-295.296 -323.455 -295.727
-296.208 -323.139 -291.155
-305.659 -324.245 -293.212
-302.99 -319.739 -300.392
-294.298 -323.24 -286.693
-303.638 -325.663 -285.397
-290.603 -323.046 -285.295
-297.068 -326.473 -278.874
-304.112 -331.334 -299.651
-309.153 -337.184 -301.709
-315.435 -328.888 -296.36
-311.456 -322.869 -303.015
-311.061 -341.461 -302.953
-320.151 -338.7 -296.123
-312.529 -345.974 -306.058
-322.587 -347.441 -300.26
-297.33 -307.441 -296.134
-302.968 -310.131 -298.528
-305.345 -304.448 -291.153
-301.574 -298.819 -296.084
-305.468 -312.605 -301.087
-310.149 -311.646 -292.75
-306.515 -315.121 -303.776
-313.319 -318.403 -297.835
-311.19 -301.207 -308.436
-311.266 -297.145 -302.592
-319.99 -292.752 -307.088
-319.1 -296.008 -313.534
-309.929 -291.951 -299.316
-318.617 -286.383 -302.336
-307.333 -285.315 -298.032
-315.947 -279.862 -301.449
-324.663 -283.164 -324.224
-327.109 -278.736 -319.189
-319.951 -284.248 -311.978
-317.708 -289.751 -317.756
-327.179 -272.36 -316.367
-319.864 -276.573 -308.47
-323.953 -266.081 -315.853
-316.558 -268.977 -307.454
-312.375 -286.191 -315.313
-314.825 -282.978 -310.1
-322.057 -280.08 -315.462
-318.82 -281.576 -320.472
-315.807 -278.213 -306.294
-323.319 -275.351 -311.277
-315.399 -272.359 -304.129
-323.008 -269.449 -308.936
-305.424 -273.029 -314.979
-308.809 -268.674 -312.254
-306.624 -274.109 -301.846
-301.376 -280.72 -306.788
-309.611 -262.578 -310.763
-308.786 -265.136 -299.126
-309.26 -256.055 -311.027
-308.604 -255.746 -299.106
-303.148 -284.014 -305.623
-307.423 -280.51 -302.438
-315.331 -285.452 -307.464
-309.962 -287.692 -312.853
-309.989 -275.09 -301.077
-319.129 -278.909 -304.835
-309.983 -269.305 -302.329
-320.024 -270.714 -305.4
-306.807 -276.77 -311.228
-308.655 -275.051 -307.707
-308.881 -283.538 -303.953
-307.122 -286.044 -311.492
-308.217 -271.049 -304.912
-308.805 -278.039 -298.831
-306.681 -267.627 -303.77
-306.291 -270.842 -295.071
-318.116 -316.948 -308.464
-319.061 -314.463 -302.16
-324.157 -307.033 -305.113
-322.348 -308.695 -310.429
-318.315 -310.431 -296.522
-324.032 -303.916 -300.362
-315.725 -305.781 -292.718
-321.604 -299.581 -296.826
-315.755 -326.815 -344.155
-321.186 -326.434 -340.461
-321.705 -337.882 -344.27
-311.104 -337.756 -342.037
-327.715 -323.632 -342.829
-329.162 -334.772 -347.26
-331.617 -320.231 -347.496
-334.515 -330.439 -353.261
-316.551 -324.858 -331.151
-321.225 -324.979 -329.887
-319.692 -332.911 -323.595
-311.286 -329.325 -323.59
-326.165 -326.449 -331.977
-327.016 -334.966 -326.358
-329.759 -326.277 -336.169
-332.909 -335.076 -331.985
-313.484 -327.733 -324.768
-320.044 -327.598 -326.947
-321.105 -320.175 -321.35
-315.286 -318.818 -322.569
-324.576 -326.199 -329.889
-327.431 -319.381 -324.151
-327.13 -323.701 -334.661
-330.563 -316.855 -329.284
-315.14 -326.603 -321.608
-320.945 -328.017 -323.959
-322.836 -323.896 -313.367
-315.558 -317.311 -314.808
-323.37 -330.426 -327.377
-330.338 -329.799 -318.221
-324.283 -332.386 -331.709
-334.502 -334.441 -326.799
-315.492 -328.745 -332.169
-319.667 -329.694 -333.936
-322.011 -327.365 -325.165
-314.774 -324.109 -324.055
-322.378 -330.938 -336.765
-328.62 -329.582 -329.906
-323.646 -331.762 -340.979
-332.11 -331.054 -337.017
-321.812 -303.357 -336.379
-326.326 -301.931 -335.671
-326.871 -311.164 -332.8
-318.635 -311.706 -332.638
-330.496 -300.745 -336.832
-334.649 -309.401 -335.553
-334.327 -298.498 -340.359
-339.768 -306.489 -339.774
-314.625 -315.186 -330.427
-323.548 -321.582 -333.237
-327.096 -311.14 -331.425
-322.294 -313.469 -338.374
-330.548 -323.326 -336.608
-333.673 -313.291 -332.806
-335.396 -323.651 -340.896
-340.248 -313.999 -338.032
-321.652 -300.69 -327.605
-327.691 -300.971 -330.21
-329.691 -292.168 -325.835
-323.15 -291.446 -324.008
-331.788 -299.891 -334.808
-334.737 -291.191 -330.779
-333.731 -297.924 -340.72
-336.675 -289.085 -337.001
-320.75 -303.425 -328.532
-326.623 -303.833 -331.49
-331.235 -297.784 -322.106
-322.168 -295.089 -319.904
-330.405 -303.548 -336.558
-338.444 -298.992 -328.776
-331.796 -303.474 -342.311
-342.163 -298.746 -338.296
-320.908 -303.532 -329.697
-326.673 -303.585 -330.919
-330.226 -300.255 -320.15
-320.554 -297.902 -319.312
-331.823 -303.892 -334.727
-338.138 -301.658 -324.989
-334.811 -304.572 -339.214
-344.62 -302.293 -333.028
-324.871 -297.21 -324.972
-330.912 -297.285 -323.701
-327.031 -300.311 -312.577
-320.712 -290.771 -315.528
-335.641 -301.308 -325.97
-334.222 -306.258 -314.95
-338.88 -303.558 -329.514
-340.535 -312.477 -321.41
-320.446 -301.918 -329.617
-326.977 -300.302 -328.498
-328.844 -312.286 -329.679
-319.549 -314.066 -329.98
-332.893 -297.58 -329.484
-337.393 -308.548 -332.303
-337.798 -293.89 -333.24
-343.667 -303.921 -336.904
-323.426 -302.296 -334.049
-328.895 -303.208 -334.485
-327.7 -303.368 -323.034
-321.091 -295.01 -325.444
-332.365 -306.962 -336.082
-335.053 -309.812 -325.254
-334.595 -310.88 -339.417
-339.77 -316.378 -330.723
-320.151 -312.07 -329.811
-325.084 -313.678 -331.165
-324.557 -317.422 -320.109
-316.163 -311.397 -318.849
-327.718 -315.718 -335.234
-331.111 -322.547 -326.381
-328.897 -317.237 -339.917
-335.002 -326.168 -335.503
-293.373 -384.98 -321.797
-297.863 -383.367 -322.104
-301.826 -391.98 -320.972
-294.262 -394.449 -320.946
-301.498 -380.465 -324.774
-307.39 -387.896 -323.656
-303.073 -376.957 -327.552
-310.932 -382.341 -328.211
-292.083 -373.357 -328.693
-297.401 -371.296 -328.66
-295.517 -367.025 -320.365
-288.884 -369.214 -320.744
-302.012 -368.521 -330.266
-301.315 -363.435 -322.251
-305.018 -364.718 -332.938
-305.368 -358.611 -325.645
-282.663 -379.075 -307.445
-293.948 -374.591 -311.403
-290.658 -381.235 -303.749
-289.957 -378.308 -315.175
-297.901 -371.249 -310.554
-297.178 -375.715 -300.906
-299.553 -366.8 -311.248
-302.21 -367.65 -300.964
-294.995 -377.711 -328.714
-300.283 -375.534 -326.856
-296.562 -376.758 -316.303
-288.859 -380.073 -319.577
-304.361 -371.081 -327.559
-302.661 -370.215 -316.466
-305.576 -366.301 -330.367
-306.019 -362.142 -319.917
-287.8 -389.788 -312.199
-289.666 -380.18 -300.602
-294.506 -388.63 -307.592
-282.939 -382.722 -303.825
-294.246 -375.472 -299.085
-301.031 -382.183 -306.339
-296.285 -368.908 -300.106
-304.299 -373.835 -307.535
-288.751 -384.913 -312.03
-292.437 -382.839 -309.464
-294.984 -392.677 -309.777
-286.973 -394.91 -312.537
-295.199 -379.205 -308.555
-301.81 -386.926 -308.747
-296.788 -374.686 -308.985
-305.873 -379.198 -309.657
-286.859 -367.178 -321.373
-291.09 -363.378 -321.826
-293.716 -368.564 -311.307
-284.476 -373.433 -311.392
-292.381 -358.368 -323.752
-299.976 -360.472 -314.679
-291.957 -353.94 -326.341
-301.56 -350.896 -319.789
-287.903 -377.401 -314.265
-291.369 -374.466 -312.63
-289.406 -379.943 -304.458
-283.799 -384.775 -308.842
-293.158 -370.27 -312.071
-293.668 -372.523 -302.309
-293.709 -365.299 -313.116
-295.168 -364.423 -303.23
-279.842 -375.418 -306.259
-287.96 -374.298 -306.728
-285.879 -364.716 -300.04
-278.249 -365.166 -300.493
-294.001 -372.209 -310.412
-292.747 -362.149 -304.239
-298.118 -368.647 -315.296
-297.673 -358.097 -309.875
-284.986 -405.084 -297.247
-290.275 -402.154 -294.591
-295.303 -406.6 -301.45
-290.218 -408.466 -304.546
-294.394 -397.955 -293.739
-299.98 -401.664 -300.603
-296.935 -392.079 -294.383
-302.55 -395.873 -301.177
-291.688 -403.463 -311.989
-297.294 -400.393 -311.547
-294.389 -399.433 -300.392
-286.294 -403.207 -301.76
-301.583 -396.76 -313.651
-301.301 -393.378 -302.594
-303.158 -392.27 -317.033
-305.029 -385.992 -307.5
-290.492 -395.358 -311.203
-294.757 -392.749 -310.66
-292.845 -395.061 -301.253
-285.803 -398.721 -303.191
-298.212 -389.968 -311.866
-299.226 -389.327 -302.065
-300.739 -386.576 -314.268
-303.622 -383.145 -305.47
-246.953 -383.098 -281.411
-248.522 -381.576 -276.945
-254.711 -387.476 -280.685
-253.755 -381.758 -287.659
-247.177 -382.342 -272.861
-253.026 -389.611 -273.055
-244.082 -382.341 -269.503
-248.205 -390.276 -266.835
-257.611 -391.822 -290.067
-256.128 -395.019 -285.529
-265.214 -388.904 -282.245
-264.75 -382.893 -289.815
-253.473 -397.642 -282.773
-260.826 -394.792 -274.493
-248.497 -400.3 -281.575
-253.174 -399.388 -271.181
-263.053 -399.438 -291.116
-267.598 -404.559 -293.055
-275.297 -397.095 -291.266
-270.058 -391.532 -293.684
-268.731 -409.233 -296.312
-278.428 -405.001 -293.812
-267.279 -412.172 -299.934
-278.138 -412.155 -300.447
-262.544 -392.877 -295.894
-267.864 -389.592 -294.612
-266.416 -398.28 -286.262
-255.628 -393.79 -285.962
-272.018 -388.78 -298.231
-276.389 -396.738 -290.177
-274.016 -386.979 -302.545
-283.4 -393.385 -298.278
-298.812 -395.246 -343.249
-304.174 -394.78 -344.762
-306.338 -398.348 -333.19
-295.587 -397.753 -331.646
-308.024 -393.437 -348.667
-315.171 -395.855 -338.952
-308.971 -390.598 -353.162
-320.06 -391.296 -347.883
-289.659 -417.367 -311.168
-300.589 -412.36 -314.421
-297.305 -415.64 -304.774
-295.059 -408.306 -313.001
-305.752 -412.632 -314.973
-306.41 -415.356 -304.64
-310.031 -410.88 -316.695
-314.929 -412.577 -307.328
-289.216 -413.208 -315.121
-299.195 -410.893 -318.967
-298.005 -406.291 -309.207
-293.825 -403.418 -316.005
-304.602 -408.949 -320.451
-306.742 -406.319 -310.138
-308.759 -406.648 -323.427
-313.948 -403.408 -314.459
-297.992 -387.592 -332.209
-301.813 -385.718 -332.713
-303.156 -391.867 -325.687
-295.148 -394.264 -326.178
-304.602 -383.49 -333.983
-310.248 -386.83 -327.205
-306.986 -380.149 -336.134
-314.692 -381.322 -330.821
-294.168 -409.265 -337.402
-299.959 -409.49 -339.974
-302.722 -402.854 -331.882
-294.778 -400.85 -330.622
-303.566 -409.391 -344.291
-309.599 -403.547 -337.465
-305.421 -409.265 -349.418
-313.535 -403.235 -345.55
-287.605 -420.104 -319.681
-292.468 -418.831 -321.232
-294.738 -428.632 -319.551
-286.768 -430.027 -317.478
-296.245 -416.865 -324.329
-301.293 -425.714 -323.826
-298.61 -414.54 -328.789
-305.115 -422.298 -330.03
-287.058 -438.042 -321.34
-295.262 -436.681 -321.562
-293.537 -427.397 -313.99
-285.718 -427.6 -315.366
-301.86 -433.387 -323.736
-300.964 -423.99 -316.159
-306.775 -428.08 -327.787
-305.757 -418.993 -319.856
-289.55 -417.657 -327.367
-295.192 -421.02 -329.373
-300.978 -412.301 -324.812
-293.967 -407.453 -324.78
-298.815 -423.853 -333.522
-306.981 -416.712 -329.967
-299.589 -425.85 -339.329
-309.303 -419.983 -338.1
-290.987 -423.619 -348.481
-296.229 -425.562 -351.582
-301.213 -417.441 -346.542
-294.332 -414.632 -343.561
-299.149 -427.143 -356.577
-306.014 -419.608 -353.073
-298.855 -427.958 -362.294
-307.041 -420.987 -361.54
-286.688 -437.729 -339.597
-291.467 -436.979 -342.188
-294.749 -435.565 -331.855
-285.945 -434.571 -329.156
-293.754 -434.784 -346.294
-301.443 -433.913 -338.569
-293.887 -432.421 -350.671
-303.834 -429.765 -346.989
-290.955 -422.889 -339.98
-296.162 -422.768 -341.91
-299.179 -417.015 -334.367
-291.655 -416.25 -332.595
-299.893 -421.235 -345.977
-304.787 -415.714 -339.294
-302.018 -420.131 -350.899
-308.166 -413.943 -346.103
-289.036 -429.845 -338.186
-295.393 -429.89 -339.577
-296.725 -422.206 -333.222
-289.77 -420.832 -333.776
-300.545 -429.683 -342.562
-303.531 -422.385 -336.314
-303.821 -428.392 -347.091
-308.321 -420.884 -342.132
-292.193 -418.453 -328.53
-299.326 -416.071 -330.534
-297.256 -417.194 -320.636
-291.769 -409.858 -323.102
-302.317 -416.052 -333.582
-305.312 -420.297 -324.833
-302.954 -416.575 -337.624
-310.102 -422.145 -332.996
-288.59 -436.736 -338.979
-292.791 -435.065 -338.872
-292.244 -440.925 -331.087
-283.44 -439.607 -331.203
-295.987 -433.378 -340.798
-300.452 -438.116 -333.528
-297.326 -430.776 -344.007
-305.372 -433.787 -339.379
-285.384 -437.979 -332.428
-292.824 -439.965 -334.234
-296.182 -430.325 -331.474
-290.036 -428.559 -333.626
-298.621 -440.627 -338.382
-302.33 -431.477 -334.594
-302.354 -440.182 -343.743
-306.955 -431.207 -340.566
-251.216 -421.807 -293.274
-251.229 -421.998 -286.397
-258.006 -414.425 -286.43
-255.015 -412.407 -292.581
-250.258 -421.989 -280.448
-257.384 -414.904 -278.931
-246.287 -420.935 -275.998
-252.901 -413.82 -273.01
-263.775 -425.685 -303.377
-262.126 -428.577 -299.086
-271.072 -423.481 -294.544
-271.61 -417.681 -302.286
-258.617 -430.263 -295.851
-265.923 -428.448 -287.487
-253.346 -431.194 -294.099
-257.636 -430.78 -283.704
-265.746 -419.982 -300.769
-268.071 -414.197 -291.704
-270.663 -422.174 -296.988
-261.009 -415.326 -293.41
-274.578 -413.295 -291.182
-277.206 -421.438 -296.188
-280.299 -410.238 -292.952
-282.85 -418.578 -297.666
-270.065 -417.641 -298.457
-269.27 -417.476 -290.889
-279.693 -411.294 -291.192
-276.303 -407.268 -299.102
-266.971 -417.718 -285.334
-277.538 -413.292 -281.373
-262.826 -418.299 -281.069
-271.254 -414.204 -273.38
-260.252 -413.63 -293.083
-261.408 -412.897 -288.161
-266.553 -421.471 -290.999
-266.331 -418.814 -299.732
-259.303 -412.699 -283.952
-262.957 -422.335 -282.593
-254.934 -412.115 -280.753
-256.791 -421.582 -276.886
-263.043 -425.626 -300.417
-275.021 -420.37 -304.301
-271.563 -422.227 -293.553
-269.053 -416.04 -302.125
-279.868 -418.605 -305.104
-281.807 -422.787 -294.631
-283.149 -417.133 -308.929
-289.85 -420.065 -300.13
-258.144 -426.829 -301.313
-258.215 -430.38 -296.569
-265.752 -437.418 -301.74
-265.573 -431.276 -308.937
-255.662 -435.099 -292.844
-262.94 -443.504 -295.921
-250.884 -439.048 -289.617
-257.325 -448.327 -291.962
-253.382 -432.665 -302.316
-252.145 -432.708 -294.619
-261.75 -425.993 -294.348
-257.979 -421.912 -301.512
-249.491 -433.006 -289.351
-259.612 -428.906 -285.089
-245.019 -432.319 -285.916
-252.75 -428.933 -277.78
-245.69 -442.735 -307.688
-245.613 -446 -303.737
-257.239 -444.686 -302.703
-255.928 -437.754 -310.575
-243.136 -449.342 -300.054
-253.886 -451.197 -295.698
-238.145 -450.689 -298.369
-245.835 -455.929 -291.2
-257.1 -438.149 -311.031
-258.467 -442.119 -309.535
-261.495 -437.411 -301.826
-259.026 -430.512 -305.669
-258.188 -446.723 -310.023
-261.126 -445.491 -301.044
-256.384 -449.662 -312.364
-258.201 -453.224 -303.716
-259.792 -444.578 -317.732
-260.155 -449.585 -315.733
-264.468 -444.752 -306.693
-263.468 -436.45 -311.09
-259.005 -454.637 -314.4
-262.341 -453.546 -303.846
-255.444 -459.396 -315.373
-257.516 -460.901 -304.55
-267.148 -437.689 -314.411
-267.979 -442.645 -311.166
-268.344 -435.865 -302.837
-266.704 -429.288 -307.725
-267.537 -447.924 -309.212
-267.25 -443.738 -299.319
-264.927 -453.303 -309.229
-263.699 -451.283 -298.746
-254.899 -438.636 -308.199
-255.779 -444.52 -306.641
-264.258 -446.17 -312.085
-263.031 -439.159 -314.352
-254.567 -451.129 -305.813
-263.19 -452.846 -311.005
-252.327 -456.455 -306.753
-260.33 -459.989 -312.017
-269.837 -445.351 -320.513
-269.703 -448.834 -314.796
-273.7 -439.664 -309.78
-271.599 -435.073 -316.454
-266.334 -451.455 -310.274
-270.083 -443.825 -302.996
-261.127 -452.69 -306.752
-263.552 -446.133 -298.015
-287.756 -424.066 -310.895
-287.731 -427.778 -307.072
-291.013 -420.703 -300.321
-289.594 -414.968 -306.396
-285.587 -431.57 -303.835
-288.994 -427.027 -295.223
-281.891 -435.178 -301.627
-284.004 -432.526 -291.885
-260.196 -366.942 -281.77
-262.231 -369.6 -278.029
-270.656 -372.533 -283.078
-267.598 -366.815 -288.86
-260.6 -374.122 -274.404
-269.45 -378.004 -277.822
-256.874 -376.886 -273.067
-264.026 -384.131 -274.257
-261.907 -369.031 -283.48
-269.957 -362.542 -282.15
-272.567 -374.471 -280.929
-270.444 -370.302 -292.204
-272.221 -358.748 -278.368
-275.665 -368.908 -272.406
-272.654 -353.983 -275.856
-277.283 -359.977 -266.199
-258.733 -360.597 -278.121
-261.656 -364.103 -277.615
-263.429 -359.185 -268.568
-259.984 -351.439 -273.25
-263.086 -368.589 -277.918
-266.894 -367.741 -268.226
-262.566 -372.967 -280.134
-266.616 -376.306 -271.1
-259.428 -333.377 -274.761
-260.526 -335.202 -268.799
-266.445 -344.117 -274.6
-266.189 -338.941 -283.216
-258.443 -337.189 -263.041
-263.271 -347.925 -266.139
-253.58 -337.863 -258.433
-256.681 -349.585 -259.489
-274.569 -363.877 -293.754
-273.453 -366.897 -288.903
-274.872 -359.36 -283.323
-274.925 -355.622 -289.096
-269.536 -369.914 -285.668
-271.19 -363.223 -279.152
-264.69 -371.076 -284.19
-264.586 -365.506 -276.514
-270.698 -328.556 -284.91
-271.75 -332.793 -279.897
-278.818 -338.868 -286.706
-277.546 -333.003 -293.067
-269.003 -337.618 -275.903
-275.832 -345.011 -281.553
-263.58 -341.004 -274.333
-269.109 -350.064 -278.87
-273.738 -344.881 -290.772
-276.589 -341.191 -285.106
-285.424 -347.285 -289.199
-282.246 -340.824 -297.336
-276.116 -339.533 -279.64
-284.405 -347.482 -279.493
-272.787 -337.258 -276.912
-278.691 -344.997 -270.814
-269.169 -338.558 -289.486
-268.527 -335.464 -280.28
-275.024 -329.592 -284.067
-269.233 -329.655 -286.057
-267.456 -331.178 -275.065
-274.964 -326.676 -278.858
-264.99 -326.899 -272.714
-272.112 -321.069 -275.226
-272.072 -335.25 -286.69
-271.445 -337.869 -282.647
-279.595 -342.72 -285.844
-279.8 -337.564 -292.616
-268.026 -340.099 -279.809
-275.201 -347.073 -280.096
-263.683 -341.381 -278.846
-267.727 -350.306 -276.802
-287.844 -361.279 -318.901
-288.552 -366.074 -314.381
-287.548 -358.514 -305.667
-285.834 -352.376 -311.775
-286.426 -371.321 -310.477
-285.95 -365.276 -300.612
-282.474 -376.757 -308.071
-281.526 -371.674 -297.711
-281.976 -362.801 -301.484
-281.914 -366.872 -295.951
-287.199 -374.995 -302.569
-287.607 -369.434 -309.359
-278.84 -370.548 -290.878
-283.574 -379.801 -296.328
-273.708 -374.063 -288.372
-276.996 -384.532 -292.531
-282.502 -364.106 -313.399
-290.697 -358.123 -314.3
-287.911 -363.78 -304.039
-280.352 -354.861 -305.984
-294.671 -357.217 -317.243
-298.531 -363.434 -307.677
-297.425 -354.965 -320.679
-306.482 -360.584 -315.07
-473.639 156.384 -160.722
-481.768 156.801 -161.607
-481.464 165.648 -157.588
-476.74 165.577 -160.089
-487.656 158.758 -164.745
-486.793 167.165 -159.939
-490.306 161.437 -169.748
-489.787 170.02 -165.211
-476.182 161.096 -157.901
-473.985 159.469 -151.536
-482.844 164.629 -149.212
-478.03 170.766 -154.217
-471.774 156.725 -148.142
-480.634 158.44 -142.752
-467.757 154.94 -146.921
-473.754 153.368 -138.433
-463.43 143.321 -164.696
-467.941 141.934 -165.811
-470.565 148.437 -161.826
-465.024 150.744 -161.976
-471.426 141.343 -168.545
-475.893 146.986 -164.905
-473.448 141.87 -172.842
-478.678 147.403 -170.181
-456.686 148.411 -161.642
